0.14541083644992 2.90466718132948 3.29
0.14541083644992 2.87390912817196 3.29
0 0 0
0.021630402354737 2.42106496021151 3.18
0 0 0
0.011720512887572 2.39133529181001 3.18
0.001804929636067 2.35417919063051 3.17
-0.192410583001862 1.91647773056997 2.83
-0.227687296451014 1.89002019548311 2.83
0.01183108376387 2.14380382597201 3.21
0.021902482887501 2.12037871606923 3.22
0.021902482887501 2.09027508957463 3.22
0.021902482887501 2.06017146308004 3.22
0.021902482887501 2.03006783658544 3.22
0.031937025052366 1.99996421009085 3.22
0.031937025052366 1.96986058359625 3.22
0.031937025052366 1.93975695710166 3.22
0.03183784174475 1.90372273020145 3.21
0.03183784174475 1.87371259323013 3.21
0.041710874253149 1.83795883489975 3.2
0.051683090069163 1.80804218745171 3.2
0 0 0
0.08210973587669 1.45809893318814 3.22
0.031738658437134 1.41912577062713 3.2
0.031738658437134 1.38920912317909 3.2
0.031738658437134 1.35929247573104 3.2
0.041710874253149 1.329375828283 3.2
0.041710874253149 1.29945918083495 3.2
0.051683090069163 1.26954253338691 3.2
0.051683090069163 1.23962588593886 3.2
0.061655305885178 1.20970923849082 3.2
0.071627521701193 1.17979259104277 3.2
0.031639475129518 1.146282581271 3.19
0.143200945318463 1.16424939288966 3.24
0.031639475129518 1.11645942334623 3.19
0.153770955232894 1.13745866014898 3.25
0.031639475129518 1.08663626542146 3.19
0.174562486358741 1.11048094836174 3.26
0.031639475129518 1.05681310749669 3.19
0.196674258379121 1.08994204503577 3.29
0.031540291821902 1.02377054534129 3.18
0.197272052477538 1.06240339610888 3.3
0 0 0
0.056592750814909 2.13406133633223 8.32
-0.047005028542626 2.05133507687845 8.3
0.001839092342112 0.768093522333624 3.23
0.011904797681402 0.737896406315755 3.23
0.001833398557771 0.705508270823278 3.22
0.001833398557771 0.675404644328684 3.22
-0.018235685771959 0.645301017834089 3.22
-0.028270227936824 0.615197391339494 3.22
-0.028358023675758 0.586910826226406 3.23
-0.130213359518211 0.561884425783228 3.26
0.021902482887501 0.554990138350305 3.22
-0.171898299330241 0.534667005865444 3.28
0.021902482887501 0.524886511855711 3.22
0 0 0
0.021902482887501 0.494782885361116 3.22
-0.235360604281037 0.477667188462169 3.31
0.021902482887501 0.464679258866521 3.22
0.021902482887501 0.434575632371927 3.22
0.021902482887501 0.404472005877332 3.22
0.031937025052366 0.374368379382737 3.22
0.041971567217231 0.344264752888143 3.22
0.061847978716069 0.313185470721519 3.21
0.081854736696949 0.283175333750199 3.21
0.01183108376387 0.25316519677888 3.21
0.211898663572667 0.25316519677888 3.21
0.01183108376387 0.22315505980756 3.21
0.001833398557771 0.19374662041517 3.22
0.001833398557771 0.163642993920575 3.22
0.001833398557771 0.133539367425981 3.22
-0.008201143607094 0.103435740931386 3.22
-0.018235685771959 0.073332114436791 3.22
-0.028182432197889 0.043094237979643 3.21
-0.028182432197889 0.013084101008324 3.21
-0.03806685227497 -0.016873306878999 3.2
-0.09667639533142 -0.046205079897955 3.16
-0.008201143607094 -0.047082391541587 3.22
-0.11600325725929 -0.075508061122352 3.15
-0.008201143607094 -0.077186018036182 3.22
-0.13434428517424 -0.103957667992553 3.12
-0.008226612997178 -0.107622842184599 3.23
-0.11563499295053 -0.133979773608592 3.14
-0.008252082387262 -0.168537250920711 3.24
-0.008277551777346 -0.199441522685503 3.25
-0.018405583465486 -0.260209712814343 3.25
-0.227120054969222 -0.273605246802774 3.06
-0.018462216029995 -0.291487942672236 3.26
-0.070107984089358 -0.387619109888516 3.3
-0.049089922705475 -0.475808522131532 3.27
-0.038661646841766 -0.503282473329704 3.25
0.10217882020642 -0.528740415455101 3.22
-0.038661646841766 -0.594434758522964 3.25
-0.048939800617691 -0.626741373136883 3.26
-0.108546565255742 -0.64915492143348 3.22
-0.018405583465486 -0.655202948651804 3.25
-0.147299472419098 -0.672930052139924 3.19
-0.00830302116743 -0.687696542312274 3.26
-0.22611683432438 -0.730279890346862 3.18
0.0120153685577 -0.748651711487664 3.26
0.0120153685577 -0.779129296075359 3.26
0.032432941590446 -0.812090337352205 3.27
