0 0 0
-0.582775144971814 2.97375627426599 3.68
-0.558317746832494 2.93136475978307 3.67
-0.522579279551307 2.88916022434671 3.66
-0.532526025977237 2.84714266795689 3.65
-0.473046913568506 2.66185840147028 3.63
-0.484359145884798 2.62792170452141 3.63
0 0 0
0 0 0
-0.498402349981812 2.33528752802551 3.65
-0.499767835872173 2.23903407949139 3.66
-0.466822666720558 2.21084100390158 3.67
-0.466822666720558 2.1765303488596 3.67
-0.46936665945473 2.1538939155823 3.69
-0.46936665945473 2.11939628149377 3.69
0 0 0
-0.474350073110017 1.64828575056051 3.64
-0.474350073110017 1.61425556408836 3.64
-0.4630066776193 1.58022537761621 3.64
-0.461734681252214 1.5419474021574 3.63
-0.450422448935922 1.50801070520852 3.63
-0.440319886637866 1.47813481819976 3.64
-0.440319886637866 1.44410463172761 3.64
-0.42897649114715 1.41007444525546 3.64
-0.474350073110017 1.37604425878331 3.64
-0.353414181203474 1.39116562426444 3.68
-0.474350073110017 1.34201407231116 3.64
-0.331376123100626 1.3604483315462 3.69
-0.473046913568506 1.30439052351527 3.63
-0.309213412300077 1.32954405978141 3.7
-0.484359145884798 1.2704538265664 3.63
-0.29929213526423 1.30195268177052 3.72
-0.484359145884798 1.23651712961752 3.63
-0.276848955893856 1.27058096238935 3.73
-0.484359145884798 1.20258043266865 3.63
-0.276848955893856 1.23570937020773 3.73
-0.495671378201089 1.16864373571977 3.63
0 0 0
-0.531643290640254 0.888881986405103 3.23
-0.485693468600734 0.967682021117501 3.64
-0.497036864091451 0.933651834645351 3.64
-0.497036864091451 0.899621648173201 3.64
-0.521151467312095 0.867969460222207 3.65
-0.522579279551307 0.836130293224663 3.66
-0.533985001390874 0.801913127705962 3.66
-0.617179289537065 0.771891022089924 3.68
-0.488362114032606 0.767695962187262 3.66
-0.68001833099936 0.743498998808842 3.71
-0.488362114032606 0.733478796668561 3.66
-0.730179654255003 0.712635487483327 3.73
-0.488362114032606 0.69926163114986 3.66
-0.769153397892054 0.681398018064713 3.75
-0.499767835872173 0.665044465631159 3.66
-0.792525778710839 0.646339446836536 3.75
-0.499767835872173 0.630827300112459 3.66
-0.498402349981812 0.594980052258802 3.65
-0.464278673986386 0.560856376263377 3.65
-0.441529556656102 0.526732700267951 3.65
-0.498402349981812 0.492609024272526 3.65
-0.348612358089296 0.489909796742265 3.63
-0.498402349981812 0.4584853482771 3.65
-0.509776908646954 0.424361672281674 3.65
-0.509776908646954 0.390237996286249 3.65
-0.509776908646954 0.356114320290823 3.65
-0.522579279551307 0.322872810444152 3.66
-0.532526025977237 0.287866968299972 3.65
-0.543900584642379 0.253743292304547 3.65
-0.553753841545035 0.219017918730192 3.64
-0.629678722013129 0.183971316146734 3.62
-0.51117355771174 0.186004148369349 3.66
-0.661688995931992 0.149713390188755 3.61
-0.51117355771174 0.151786982850649 3.66
-0.687733021714269 0.114678756250015 3.57
-0.512570206776526 0.117891046341052 3.67
-0.724029731882387 0.080392038497476 3.53
-0.513966855841312 0.083808130784904 3.68
-0.746030933026469 0.047390236781352 3.53
-0.515363504906098 0.049538236182207 3.69
-0.759176098849498 0.014429195504507 3.54
-0.528290528508151 0.015081362532959 3.7
-0.528290528508151 -0.019509761078842 3.7
-0.531146152986574 -0.054393321905188 3.72
-0.651583434102316 -0.088212592041351 3.68
-0.497702373044158 -0.089411132694086 3.73
-0.544197829286328 -0.124282724875713 3.73
-0.532573965225785 -0.15915431705734 3.73
-0.531146152986574 -0.193505732538594 3.72
-0.519553452100457 -0.228283835196945 3.72
-0.492365082180414 -0.260940470614528 3.69
-0.47825955173455 -0.293836814162658 3.67
-0.53544397680451 -0.328147469204634 3.67
-0.381495200892061 -0.323676795237269 3.62
-0.546880861818502 -0.36245812424661 3.67
-0.558317746832494 -0.396768779288586 3.67
-0.324191816908742 -0.390282096248446 3.61
-0.51117355771174 -0.498339162004665 3.66
-0.308377700374941 -0.502423909234211 3.69
-0.434869025366204 -0.536921543322737 3.69
-0.456626614899227 -0.569870615954864 3.68
-0.54539072323044 -0.600990658560767 3.66
-0.434869025366204 -0.60591681149979 3.69
-0.532526025977237 -0.633472283576518 3.65
-0.414102963630441 -0.643885526594215 3.71
-0.532526025977237 -0.667595959571944 3.65
-0.381463732438736 -0.68222819978174 3.73
-0.349379744602341 -0.722867350611866 3.76
