0.14541083644992 2.90466718132948 0.0329
0.156136662236477 2.88264441427583 0.033
0.011720512887572 2.42106496021151 0.0318
0 0 0
0.011683655928806 2.38381536950872 0.0317
0 0 0
0.001804929636067 2.35417919063051 0.0317
0 0 0
0.011867940722636 2.15048234256382 0.0322
0.021970503020692 2.12696374313776 0.0323
0.021970503020692 2.09676662711989 0.0323
0.021970503020692 2.06656951110202 0.0323
0.021970503020692 2.03637239508415 0.0323
0.021970503020692 2.00617527906628 0.0323
0.031937025052366 1.96986058359625 0.0322
0.031937025052366 1.93975695710166 0.0322
0.03183784174475 1.90372273020145 0.0321
0.03183784174475 1.87371259323013 0.0321
0.041710874253149 1.83795883489975 0.032
0 0 0
0 0 0
0.08210973587669 1.45809893318814 0.0322
0.03183784174475 1.42356053866034 0.0321
0.03183784174475 1.39355040168902 0.0321
0.04184122073519 1.3635402647177 0.0321
0.041710874253149 1.329375828283 0.032
0.041710874253149 1.29945918083495 0.032
0.051844599725629 1.27350985380374 0.0321
0.061847978716069 1.24349971683242 0.0321
0.061847978716069 1.2134895798611 0.0321
0.071851357706509 1.18347944288978 0.0321
0.031738658437134 1.14987594359473 0.032
0.143642923544754 1.1678427552134 0.0325
0.031738658437134 1.11995929614669 0.032
0.153770955232894 1.13745866014898 0.0325
0.031738658437134 1.09004264869864 0.032
0.175097954108307 1.11388733163892 0.0327
0.031639475129518 1.05681310749669 0.0319
0.197272052477538 1.09325493878968 0.033
0.031639475129518 1.02698994957192 0.0319
0.197869846575955 1.06562280033952 0.0331
0 0 0
0.057204932013628 2.15714613444159 0.0841
-0.047344823929681 2.06616400514504 0.0836
-0.008226612997178 0.768093522333624 0.0323
0.011904797681402 0.737896406315755 0.0323
0.001839092342112 0.707699290297885 0.0323
-0.008226612997178 0.677502174280015 0.0323
-0.018292318336468 0.647305058262145 0.0323
-0.028358023675758 0.617107942244275 0.0323
-0.028358023675758 0.586910826226406 0.0323
-0.130213359518211 0.561884425783228 0.0326
0.011867940722636 0.554990138350305 0.0322
-0.171898299330241 0.534667005865444 0.0328
0.021902482887501 0.524886511855711 0.0322
-0.203798002372806 0.50707562785456 0.033
0.021902482887501 0.494782885361116 0.0322
-0.237493781963343 0.481996498327385 0.0334
0.021902482887501 0.464679258866521 0.0322
0.021902482887501 0.434575632371927 0.0322
0.021902482887501 0.404472005877332 0.0322
0.03183784174475 0.373205744664157 0.0321
0.04184122073519 0.343195607692838 0.0321
0.061847978716069 0.313185470721519 0.0321
0.08210973587669 0.284057499898954 0.0322
0.01183108376387 0.22315505980756 0.0321
0.00182770477343 0.193144922836241 0.0321
0.00182770477343 0.163134785864921 0.0321
0.00182770477343 0.133124648893602 0.0321
-0.00817567421701 0.103114511922282 0.0321
-0.018179053207449 0.073104374950963 0.0321
-0.028182432197889 0.043094237979643 0.0321
-0.03806685227497 0.013043340569046 0.032
-0.03806685227497 -0.016873306878999 0.032
-0.09698233329133 -0.046351298505227 0.0317
-0.008201143607094 -0.047082391541587 0.0322
-0.11600325725929 -0.075508061122352 0.0315
-0.008201143607094 -0.077186018036182 0.0322
-0.105849756181066 -0.133979773608592 0.0314
-0.008252082387262 -0.168537250920711 0.0324
-0.008277551777346 -0.199441522685503 0.0325
-0.018462216029995 -0.261010358084541 0.0326
-0.226377832567362 -0.272711112009301 0.0305
-0.018518848594505 -0.29238207746571 0.0327
-0.070107984089358 -0.387619109888516 0.033
-0.049240044793259 -0.477263594064655 0.0328
-0.038780605755126 -0.504831034786103 0.0326
0.102496145735011 -0.530382466434775 0.0323
-0.038661646841766 -0.594434758522964 0.0325
-0.048939800617691 -0.626741373136883 0.0326
-0.108209464121408 -0.647138912360705 0.0321
-0.018405583465486 -0.655202948651804 0.0325
-0.147761226251132 -0.675039550735974 0.032
-0.00830302116743 -0.687696542312274 0.0326
0.001850479910794 -0.715971138780644 0.0325
-0.236768946193405 -0.732576367989463 0.0319
0.001850479910794 -0.746355233845064 0.0325
0.001850479910794 -0.776739328909484 0.0325
0.032432941590446 -0.812090337352205 0.0327
