0 0 0
216.022505951093 258.660077770577 3.67
217.809997835966 256.176279974076 3.66
216.425016230253 253.702203499676 3.65
209.21445574551 247.51458198315 3.69
218.381302748323 243.48995463383 3.63
218.381302748323 241.725534672715 3.63
0 0 0
219.3940705475 229.49125081011 3.66
219.3940705475 227.712248865846 3.66
219.3940705475 222.375243033053 3.66
221.581908677775 221.198963058976 3.67
222.376109067301 219.415100453662 3.67
222.376109067301 217.631237848347 3.67
222.982038519801 216.435515230071 3.68
0 0 0
0 0 0
220.374377840294 193.381399870382 3.65
219.770612421554 191.082307193778 3.64
0 0 0
219.770612421554 189.313026571614 3.64
220.558320709803 187.543745949449 3.64
220.558320709803 185.774465327285 3.64
220.558320709803 184.00518470512 3.64
220.737935511794 181.735255994815 3.63
222.133737286302 180.466623460791 3.64
222.921445574551 178.697342838626 3.64
218.563081584073 175.955930006481 3.62
231.742047175936 178.872326636423 3.68
218.563081584073 174.196370706416 3.62
232.538411599221 177.083603370058 3.68
217.779701363341 172.436811406351 3.62
234.767366370915 175.771224886585 3.69
217.17809997836 170.205767984446 3.61
237.645531270288 174.920609202852 3.71
217.959316165332 168.451069345431 3.61
239.733823847652 174.050550874919 3.73
216.396883791387 166.696370706416 3.61
239.733823847652 172.237524303305 3.73
215.615667604415 164.941672067401 3.61
180.865613503571 144.201231367466 3.19
0 0 0
211.709586669552 156.168178872327 3.61
217.595758493832 155.268956578095 3.63
218.195195845055 153.927414128321 3.64
217.407487556806 152.158133506157 3.64
215.832070980307 150.388852883992 3.64
216.425016230253 149.027867790019 3.65
216.425016230253 147.253726506805 3.65
210.681670634062 145.878159429682 3.66
219.584505518286 145.47958522359 3.65
207.286301666306 144.49287103046 3.67
219.584505518286 143.705443940376 3.65
205.22181346029 143.48671419313 3.69
219.584505518286 141.931302657161 3.65
205.024886388228 143.229099157485 3.73
218.794633196278 140.157161373947 3.65
203.410517204068 141.416072585872 3.73
218.00476087427 138.383020090732 3.65
217.407487556806 136.234607906675 3.64
219.770612421554 134.465327284511 3.64
222.133737286302 132.696046662346 3.64
217.407487556806 129.157485418017 3.64
217.407487556806 127.388204795852 3.64
217.407487556806 125.618924173688 3.64
217.407487556806 123.849643551523 3.64
216.619779268557 122.080362929358 3.64
214.453581475871 119.9805573558 3.63
214.453581475871 118.216137394686 3.63
206.65223977494 115.168502916397 3.59
216.024669984852 116.451717433571 3.63
204.527158623675 113.107582631238 3.58
217.407487556806 115.0032404407 3.64
201.073360744428 110.745301360985 3.56
217.407487556806 113.233959818535 3.64
198.203851980091 108.708684381076 3.55
218.00476087427 111.770900842515 3.65
194.03159489288 106.380427738172 3.53
218.602034191733 110.298120544394 3.66
192.720190434971 104.368114063513 3.52
218.602034191733 108.51911860013 3.66
190.653538195196 102.365521710953 3.51
218.405107119671 107.031756318859 3.67
219.000216403376 105.534672715489 3.68
220.190434970786 104.309786130914 3.7
219.982687729929 102.788399222294 3.71
220.575632979874 101.257290991575 3.72
222.78294741398 99.7164614387557 3.73
221.380653538195 97.6409591704472 3.72
221.791819952391 95.3175631885937 3.7
220.186106903268 92.5081011017499 3.66
217.017961480199 90.7290991574854 3.66
222.47998268773 89.7375243033052 3.62
216.425016230253 88.7070641607259 3.65
224.367020125514 87.4918988982502 3.6
215.433888768665 87.1710952689566 3.66
215.433888768665 85.3920933246922 3.66
226.851330880762 83.7589112119248 3.59
219.199307509197 80.2738172391445 3.67
230.164466565678 79.398898250162 3.63
225.371131789656 78.7038237200259 3.68
222.376109067301 76.7060920285159 3.67
216.225925124432 74.7180816591056 3.66
225.371131789656 75.1263771872975 3.68
217.017961480199 72.9390797148412 3.66
228.998052369617 73.7362281270253 3.7
217.809997835966 71.1600777705768 3.66
231.400129842025 71.9377835385613 3.7
235.066003029647 70.5184705119896 3.72
238.119454663493 68.8950097213221 3.73
