0 0 0
161.736876215165 344.880103694102 3.67
161.594296824368 337.342838626053 3.64
156.215165262476 329.125081011018 3.68
163.052495139339 323.758911211925 3.62
162.465975372651 321.412832145172 3.62
0 0 0
164.261179520415 305.98833441348 3.66
163.812378483474 302.786779001944 3.65
163.812378483474 298.055735580039 3.65
165.447180816591 296.50032404407 3.66
165.899222294232 294.931950745301 3.67
166.49384316267 292.553467271549 3.67
166.49384316267 290.174983797796 3.67
166.49384316267 287.796500324044 3.67
0 0 0
0 0 0
164.99513933895 257.841866493843 3.65
164.99513933895 255.47634478289 3.65
0 0 0
164.99513933895 253.110823071938 3.65
165.586519766688 250.745301360985 3.65
165.132858068697 247.699287103046 3.64
165.722618276086 245.340246273493 3.64
165.722618276086 242.98120544394 3.64
166.312378483474 240.622164614388 3.64
166.312378483474 238.263123784835 3.64
163.639014906027 234.607906675308 3.62
173.50615683733 238.49643551523 3.68
163.639014906027 232.261827608555 3.62
174.102397926118 236.111471160078 3.68
162.602073882048 229.280622164614 3.61
175.771224886585 234.361633182113 3.69
162.602073882048 226.941023979261 3.61
177.926117952042 233.227478937135 3.71
162.602073882048 224.601425793908 3.61
179.48963058976 232.067401166559 3.73
162.01717433571 222.261827608555 3.61
179.970836033701 230.265716137395 3.74
161.879455605962 220.531432274789 3.62
135.931626701231 192.268308489955 3.19
0 0 0
159.385936487362 209.377835385612 3.63
163.363577446533 207.595593000648 3.64
163.363577446533 205.236552171095 3.64
162.773817239145 202.877511341542 3.64
162.038237200259 201.069345430979 3.65
162.629617627997 198.703823720026 3.65
162.038237200259 196.338302009073 3.65
158.600129617628 195.567077122489 3.68
164.403758911212 193.972780298121 3.65
156.464679196371 194.232015554115 3.7
164.403758911212 191.607258587168 3.65
154.899546338302 192.871030460143 3.72
164.403758911212 189.241736876215 3.65
153.914452365522 191.48412184057 3.74
163.812378483474 186.876215165263 3.65
0 0 0
163.363577446533 184.00518470512 3.64
163.363577446533 181.646143875567 3.64
165.132858068697 179.287103046014 3.64
166.312378483474 176.928062216461 3.64
162.326636422553 171.736876215165 3.63
162.326636422553 169.384316267012 3.63
162.326636422553 167.031756318859 3.63
162.773817239145 165.132858068697 3.64
161.150356448477 162.326636422553 3.63
160.562216461439 159.974076474401 3.63
159.533376539209 157.187297472456 3.62
155.735580038885 153.98574206092 3.6
161.738496435515 155.268956578095 3.63
153.130265716137 150.810110174984 3.58
162.773817239145 153.337653920933 3.64
150.544394037589 147.660401814647 3.56
162.773817239145 150.97861309138 3.64
147.97796500324 144.536616979909 3.54
162.773817239145 148.619572261828 3.64
144.860661049903 141.438755670771 3.52
163.220998055736 146.662346079067 3.65
143.470511989631 138.366817887233 3.5
163.668178872327 144.692158133506 3.66
142.336357744653 136.098509397278 3.5
163.52073882048 142.709008425146 3.67
165.0097213221 141.095268956578 3.69
164.701879455606 137.051198963059 3.71
165.145819831497 135.0097213221 3.72
166.351263771873 132.598833441348 3.72
165.302981205444 129.837977965003 3.71
166.056383668179 127.090084251458 3.7
164.854180168503 123.344134802333 3.66
162.48217757615 120.972132209981 3.66
166.571613739469 119.650032404407 3.62
162.038237200259 118.276085547635 3.65
167.98444588464 116.655865197667 3.6
161.296176279974 116.228127025275 3.66
161.296176279974 113.856124432923 3.66
169.844458846403 111.678548282566 3.59
164.115359688918 107.031756318859 3.67
172.799740764744 106.156837329877 3.64
168.736228127025 104.938431626701 3.68
166.49384316267 102.274789371355 3.67
162.48217757615 99.6241088788075 3.66
170.252754374595 100.712896953986 3.7
162.48217757615 97.252106286455 3.66
171.915100453662 98.5806869734284 3.71
174.186649384316 96.4355152300713 3.72
176.467919637071 94.2773817239145 3.73
179.236876215165 92.352559948153 3.75
